# This PCD file was generated using the MATLAB® pcwrite function
# from Computer Vision System Toolbox®.
# .PCD v.7 - Point Cloud Data file format
VERSION .7
FIELDS x y z
SIZE 8 8 8
TYPE F F F
COUNT 1 1 1
WIDTH 837
HEIGHT 1
VIEWPOINT 0 0 0 1 0 0 0
POINTS 837
DATA ascii
30.498199154480336 29.214963748489421 29.631875447315323
30.509601564970321 29.196996424561341 29.690983005625053
30.518992810898180 29.182198188888080 29.751310112835146
30.526335829306682 29.170627443345168 29.812618685414275
30.531601640656881 29.162329852379095 29.874666766435695
30.534769463197094 29.157338162790595 29.937209480470688
30.535826794978995 29.155672074497986 30.000000000000000
30.534769463197094 29.157338162790595 30.062790519529312
30.531601640656881 29.162329852379095 30.125333233564305
30.526335829306682 29.170627443345168 30.187381314585725
30.518992810898180 29.182198188888080 30.248689887164854
30.509601564970321 29.196996424561341 30.309016994374947
30.498199154480336 29.214963748489421 30.368124552684677
30.484830579533160 29.236029251853264 30.425779291565071
30.469548599786588 29.260109798735005 30.481753674101714
30.452413526233009 29.287110354217464 30.535826794978998
30.433492983179470 29.316924359443526 30.587785252292473
30.412861641365424 29.349434152155286 30.637423989748690
30.390600923271453 29.384511431053227 30.684547105928690
30.366798681781916 29.422017762142822 30.728968627421413
30.341548853469764 29.461805125070271 30.770513242775788
30.314951087871798 29.503716497291219 30.809016994374947
30.287110354217464 29.547586473766991 30.844327925502014
30.258136527163277 29.593241919742724 30.876306680043864
30.228143953167741 29.640502654031145 30.904827052466018
30.197250999218110 29.689182160105389 30.929776485888251
30.165579585689972 29.739088322194533 30.951056516295154
30.133254705183234 29.790024183476767 30.968583161128631
30.100403929233419 29.841788723377995 30.982287250728689
30.067156904845117 29.894177650908190 30.992114701314478
30.033644842834459 29.946984210904620 30.998026728428272
30.000000000000000 30.000000000000000 31.000000000000000
30.000000000000000 30.000000000000000 29.000000000000000
30.040024183476767 29.951619073181892 29.001973271571728
30.079890409786664 29.903429083778793 29.007885298685522
30.119441345147585 29.855620215662963 29.017712749271311
30.158520900086774 29.808381148595064 29.031416838871369
30.196974845454626 29.761898313591331 29.048943483704846
30.234651421096718 29.716355157165541 29.070223514111749
30.271401934781778 29.671931417349416 29.095172947533982
30.307081349022006 29.628802414348737 29.123693319956136
30.341548853469764 29.587138358634576 29.155672074497986
30.374668420631707 29.547103679200340 29.190983005625053
30.406309342707139 29.508856374635656 29.229486757224212
30.436346747431983 29.472547389578104 29.271031372578587
30.464662090892581 29.438320019003712 29.315452894071310
30.491143625364344 29.406309342707139 29.362576010251310
30.515686840328971 29.376641692203435 29.412214747707527
30.538194874929729 29.349434152155286 29.464173205021002
30.558578900236988 29.324794098293317 29.518246325898286
30.576758469815438 29.302818773653147 29.574220708434929
30.592661837209405 29.283594904801564 29.631875447315323
30.606226239093345 29.267198359566375 29.690983005625053
30.617398142970011 29.253693847620752 29.751310112835146
30.626133458438751 29.243134665103725 29.812618685414275
30.632397711200205 29.235562484284650 29.874666766435695
30.636166179110582 29.231007189101820 29.937209480470688
30.637423989748690 29.229486757224212 30.000000000000000
30.636166179110582 29.231007189101820 30.062790519529312
30.632397711200205 29.235562484284650 30.125333233564305
30.626133458438751 29.243134665103725 30.187381314585725
30.617398142970011 29.253693847620752 30.248689887164854
30.606226239093345 29.267198359566375 30.309016994374947
30.592661837209405 29.283594904801564 30.368124552684677
30.576758469815438 29.302818773653147 30.425779291565071
30.558578900236988 29.324794098293317 30.481753674101714
30.538194874929729 29.349434152155286 30.535826794978998
30.515686840328971 29.376641692203435 30.587785252292473
30.491143625364344 29.406309342707139 30.637423989748690
30.464662090892581 29.438320019003712 30.684547105928690
30.436346747431983 29.472547389578104 30.728968627421413
30.406309342707139 29.508856374635656 30.770513242775788
30.374668420631707 29.547103679200340 30.809016994374947
30.341548853469764 29.587138358634576 30.844327925502014
30.307081349022006 29.628802414348737 30.876306680043864
30.271401934781778 29.671931417349416 30.904827052466018
30.234651421096718 29.716355157165541 30.929776485888251
30.196974845454626 29.761898313591331 30.951056516295154
30.158520900086774 29.808381148595064 30.968583161128631
30.119441345147585 29.855620215662963 30.982287250728689
30.079890409786664 29.903429083778793 30.992114701314478
30.040024183476767 29.951619073181892 30.998026728428272
30.000000000000000 30.000000000000000 31.000000000000000
30.000000000000000 30.000000000000000 29.000000000000000
30.045772318836359 29.957016931576451 29.001973271571728
30.091363995241657 29.914203497686870 29.007885298685522
30.136595099697974 29.871728663395228 29.017712749271311
30.181287125700152 29.829760057467567 29.031416838871369
30.225263694239395 29.788463310817846 29.048943483704846
30.268351249890671 29.748001402838412 29.070223514111749
30.310379745756652 29.708534018194761 29.095172947533982
30.351183314565148 29.670216916623158 29.123693319956136
30.390600923271453 29.633201318218084 29.155672074497986
30.428477008582192 29.597633306635622 29.190983005625053
30.464662090892581 29.563653252568017 29.229486757224212
30.499013364214136 29.531395259764658 29.271031372578587
30.531395259764658 29.500986635785864 29.315452894071310
30.561679980996288 29.472547389578104 29.362576010251310
30.589748007950103 29.446189757853503 29.412214747707527
30.615488568946773 29.422017762142822 29.464173205021002
30.638800077751789 29.400126798269994 29.518246325898286
30.659590534489915 29.380603259868401 29.574220708434929
30.677777888726663 29.363524197424653 29.631875447315323
30.693290363283868 29.348957014195530 29.690983005625053
30.706066737511431 29.336959200198134 29.751310112835146
30.716056588897246 29.327578105323028 29.812618685414275
30.723220492061820 29.320850752465869 29.874666766435695
30.727530174352239 29.316803691414950 29.937209480470688
30.728968627421413 29.315452894071310 30.000000000000000
30.727530174352239 29.316803691414950 30.062790519529312
30.723220492061820 29.320850752465869 30.125333233564305
30.716056588897246 29.327578105323028 30.187381314585725
30.706066737511431 29.336959200198134 30.248689887164854
30.693290363283868 29.348957014195530 30.309016994374947
30.677777888726663 29.363524197424653 30.368124552684677
30.659590534489915 29.380603259868401 30.425779291565071
30.638800077751789 29.400126798269994 30.481753674101714
30.615488568946773 29.422017762142822 30.535826794978998
30.589748007950103 29.446189757853503 30.587785252292473
30.561679980996288 29.472547389578104 30.637423989748690
30.531395259764658 29.500986635785864 30.684547105928690
30.499013364214136 29.531395259764658 30.728968627421413
30.464662090892581 29.563653252568017 30.770513242775788
30.428477008582192 29.597633306635622 30.809016994374947
30.390600923271453 29.633201318218084 30.844327925502014
30.351183314565148 29.670216916623158 30.876306680043864
30.310379745756652 29.708534018194761 30.904827052466018
30.268351249890671 29.748001402838412 30.929776485888251
30.225263694239395 29.788463310817846 30.951056516295154
30.181287125700152 29.829760057467567 30.968583161128631
30.136595099697974 29.871728663395228 30.982287250728689
30.091363995241657 29.914203497686870 30.992114701314478
30.045772318836359 29.957016931576451 30.998026728428272
30.000000000000000 30.000000000000000 31.000000000000000
30.000000000000000 30.000000000000000 29.000000000000000
30.050798597384848 29.963092658636889 29.001973271571728
30.101396715913488 29.926330973688774 29.007885298685522
30.151594667928169 29.889860026731334 29.017712749271311
30.201194345045558 29.853823751930218 29.031416838871369
30.250000000000000 29.818364367998658 29.048943483704846
30.297819019168582 29.783621816925184 29.070223514111749
30.344462682729070 29.749733211686515 29.095172947533982
30.389746909450857 29.716832295125297 29.123693319956136
30.433492983179470 29.685048912128202 29.155672074497986
30.475528258147577 29.654508497187475 29.190983005625053
30.515686840328971 29.625331579368293 29.229486757224212
30.553810242146497 29.597633306635622 29.271031372578587
30.589748007950103 29.571522991417808 29.315452894071310
30.623358307796565 29.547103679200340 29.362576010251310
30.654508497187475 29.524471741852423 29.412214747707527
30.683075640556474 29.503716497291219 29.464173205021002
30.708946996439774 29.484919856984838 29.518246325898286
30.732020462415203 29.468156002685205 29.574220708434929
30.752204978053815 29.453491093666564 29.631875447315323
30.769420884293812 29.440983005625053 29.690983005625053
30.783600237818469 29.430681102269766 29.751310112835146
30.794687079197352 29.422626040506756 29.812618685414275
30.802637653732639 29.416849609984798 29.874666766435695
30.807420584138903 29.413374607636158 29.937209480470688
30.809016994374947 29.412214747707527 30.000000000000000
30.807420584138903 29.413374607636158 30.062790519529312
30.802637653732639 29.416849609984798 30.125333233564305
30.794687079197352 29.422626040506756 30.187381314585725
30.783600237818469 29.430681102269766 30.248689887164854
30.769420884293812 29.440983005625053 30.309016994374947
30.752204978053815 29.453491093666564 30.368124552684677
30.732020462415203 29.468156002685205 30.425779291565071
30.708946996439774 29.484919856984838 30.481753674101714
30.683075640556474 29.503716497291219 30.535826794978998
30.654508497187475 29.524471741852423 30.587785252292473
30.623358307796565 29.547103679200340 30.637423989748690
30.589748007950103 29.571522991417808 30.684547105928690
30.553810242146497 29.597633306635622 30.728968627421413
30.515686840328971 29.625331579368293 30.770513242775788
30.475528258147577 29.654508497187475 30.809016994374947
30.433492983179470 29.685048912128202 30.844327925502014
30.389746909450857 29.716832295125297 30.876306680043864
30.344462682729070 29.749733211686515 30.904827052466018
30.297819019168582 29.783621816925184 30.929776485888251
30.250000000000000 29.818364367998658 30.951056516295154
30.201194345045558 29.853823751930218 30.968583161128631
30.151594667928169 29.889860026731334 30.982287250728689
30.101396715913488 29.926330973688774 30.992114701314478
30.050798597384848 29.963092658636889 30.998026728428272
30.000000000000000 30.000000000000000 31.000000000000000
30.000000000000000 30.000000000000000 29.000000000000000
30.055023751706962 29.969750436517998 29.001973271571728
30.109830349803897 29.939620254243348 29.007885298685522
30.164203497686870 29.909728363240319 29.017712749271311
30.217928609381918 29.880192733146391 29.031416838871369
30.270793656417844 29.851129927599999 29.048943483704846
30.322590004605743 29.822654644217106 29.070223514111749
30.373113237422817 29.794879261932099 29.095172947533982
30.422163962751007 29.767913397489497 29.123693319956136
30.469548599786588 29.741863472836723 29.155672074497986
30.515080143015162 29.716832295125297 29.190983005625053
30.558578900236988 29.692918650977994 29.229486757224212
30.599873201730006 29.670216916623158 29.271031372578587
30.638800077751789 29.648816685434852 29.315452894071310
30.675205901706683 29.628802414348737 29.362576010251310
30.708946996439774 29.610253090549143 29.412214747707527
30.739890201264995 29.593241919742724 29.464173205021002
30.767913397489497 29.577836037248993 29.518246325898286
30.792905990360371 29.564096243047871 29.574220708434929
30.814769345531584 29.552076761829952 29.631875447315323
30.833417178328688 29.541825028996431 29.690983005625053
30.848775894275022 29.533381503453228 29.751310112835146
30.860784879535473 29.526779507938180 29.812618685414275
30.869396740131599 29.522045097511423 29.874666766435695
30.874577488984016 29.519196956727967 29.937209480470688
30.876306680043864 29.518246325898286 30.000000000000000
30.874577488984016 29.519196956727967 30.062790519529312
30.869396740131599 29.522045097511423 30.125333233564305
30.860784879535473 29.526779507938180 30.187381314585725
30.848775894275022 29.533381503453228 30.248689887164854
30.833417178328688 29.541825028996431 30.309016994374947
30.814769345531584 29.552076761829952 30.368124552684677
30.792905990360371 29.564096243047871 30.425779291565071
30.767913397489497 29.577836037248993 30.481753674101714
30.739890201264995 29.593241919742724 30.535826794978998
30.708946996439774 29.610253090549143 30.587785252292473
30.675205901706683 29.628802414348737 30.637423989748690
30.638800077751789 29.648816685434852 30.684547105928690
30.599873201730006 29.670216916623158 30.728968627421413
30.558578900236988 29.692918650977994 30.770513242775788
30.515080143015162 29.716832295125297 30.809016994374947
30.469548599786588 29.741863472836723 30.844327925502014
30.422163962751007 29.767913397489497 30.876306680043864
30.373113237422817 29.794879261932099 30.904827052466018
30.322590004605743 29.822654644217106 30.929776485888251
30.270793656417844 29.851129927599999 30.951056516295154
30.217928609381918 29.880192733146391 30.968583161128631
30.164203497686870 29.909728363240319 30.982287250728689
30.109830349803897 29.939620254243348 30.992114701314478
30.055023751706962 29.969750436517998 30.998026728428272
30.000000000000000 30.000000000000000 31.000000000000000
30.000000000000000 30.000000000000000 29.000000000000000
30.058381148595064 29.976885268085432 29.001973271571728
30.116531893468430 29.953861759457617 29.007885298685522
30.174222740196637 29.931020337386663 29.017712749271311
30.231226009364086 29.908451146530236 29.031416838871369
30.287316735109687 29.886243257173760 29.048943483704846
30.342273552964343 29.864484313710705 29.070223514111749
30.395879573475362 29.843260188750207 29.095172947533982
30.447923238170048 29.822654644217106 29.123693319956136
30.498199154480336 29.802749000781894 29.155672074497986
30.546508906333436 29.783621816925184 29.190983005625053
30.592661837209405 29.765348578903282 29.229486757224212
30.636475802575347 29.748001402838412 29.271031372578587
30.677777888726663 29.731648750109329 29.315452894071310
30.716405095198436 29.716355157165541 29.362576010251310
30.752204978053815 29.702180980831422 29.412214747707527
30.785036251510579 29.689182160105389 29.464173205021002
30.814769345531584 29.677409995394257 29.518246325898286
30.841286917178479 29.666910946053950 29.574220708434929
30.864484313710705 29.657726447035657 29.631875447315323
30.884269985602032 29.649892745360997 29.690983005625053
30.900565847844714 29.643440757071613 29.751310112835146
30.913307588115352 29.638395945217638 29.812618685414275
30.922444920586248 29.634778219366716 29.874666766435695
30.927941784380586 29.632601857029989 29.937209480470688
30.929776485888251 29.631875447315323 30.000000000000000
30.927941784380586 29.632601857029989 30.062790519529312
30.922444920586248 29.634778219366716 30.125333233564305
30.913307588115352 29.638395945217638 30.187381314585725
30.900565847844714 29.643440757071613 30.248689887164854
30.884269985602032 29.649892745360997 30.309016994374947
30.864484313710705 29.657726447035657 30.368124552684677
30.841286917178479 29.666910946053950 30.425779291565071
30.814769345531584 29.677409995394257 30.481753674101714
30.785036251510579 29.689182160105389 30.535826794978998
30.752204978053815 29.702180980831422 30.587785252292473
30.716405095198436 29.716355157165541 30.637423989748690
30.677777888726663 29.731648750109329 30.684547105928690
30.636475802575347 29.748001402838412 30.728968627421413
30.592661837209405 29.765348578903282 30.770513242775788
30.546508906333436 29.783621816925184 30.809016994374947
30.498199154480336 29.802749000781894 30.844327925502014
30.447923238170048 29.822654644217106 30.876306680043864
30.395879573475362 29.843260188750207 30.904827052466018
30.342273552964343 29.864484313710705 30.929776485888251
30.287316735109687 29.886243257173760 30.951056516295154
30.231226009364086 29.908451146530236 30.968583161128631
30.174222740196637 29.931020337386663 30.982287250728689
30.116531893468430 29.953861759457617 30.992114701314478
30.058381148595064 29.976885268085432 30.998026728428272
30.000000000000000 30.000000000000000 31.000000000000000
30.000000000000000 30.000000000000000 29.000000000000000
30.060817839894611 29.984384632783232 29.001973271571728
30.121395659560186 29.968830892286888 29.007885298685522
30.181494386017881 29.953400162018873 29.017712749271311
30.240876837050859 29.938153340021930 29.031416838871369
30.299308657254155 29.923150598536871 29.048943483704846
30.356559242928387 29.908451146530236 29.070223514111749
30.412402652167206 29.894112996023551 29.095172947533982
30.466618496546772 29.880192733146391 29.123693319956136
30.518992810898180 29.866745294816766 29.155672074497986
30.569318897730234 29.853823751930218 29.190983005625053
30.617398142970011 29.841479099913226 29.229486757224212
30.663040799801866 29.829760057467567 29.271031372578587
30.706066737511431 29.818712874299852 29.315452894071310
30.746306152379248 29.808381148595064 29.362576010251310
30.783600237818469 29.798805654954446 29.412214747707527
30.817801811111920 29.790024183476767 29.464173205021002
30.848775894275022 29.782071390618082 29.518246325898286
30.876400246752240 29.774978662418519 29.574220708434929
30.900565847844714 29.768773990635914 29.631875447315323
30.921177326965143 29.763481862275157 29.690983005625053
30.938153340021930 29.759123162949141 29.751310112835146
30.951426890447145 29.755715094452807 29.812618685414275
30.960945593601366 29.753271106875509 29.874666766435695
30.966671883511921 29.751800845519664 29.937209480470688
30.968583161128631 29.751310112835146 30.000000000000000
30.966671883511921 29.751800845519664 30.062790519529312
30.960945593601366 29.753271106875509 30.125333233564305
30.951426890447145 29.755715094452807 30.187381314585725
30.938153340021930 29.759123162949141 30.248689887164854
30.921177326965143 29.763481862275157 30.309016994374947
30.900565847844714 29.768773990635914 30.368124552684677
30.876400246752240 29.774978662418519 30.425779291565071
30.848775894275022 29.782071390618082 30.481753674101714
30.817801811111920 29.790024183476767 30.535826794978998
30.783600237818469 29.798805654954446 30.587785252292473
30.746306152379248 29.808381148595064 30.637423989748690
30.706066737511431 29.818712874299852 30.684547105928690
30.663040799801866 29.829760057467567 30.728968627421413
30.617398142970011 29.841479099913226 30.770513242775788
30.569318897730234 29.853823751930218 30.809016994374947
30.518992810898180 29.866745294816766 30.844327925502014
30.466618496546772 29.880192733146391 30.876306680043864
30.412402652167206 29.894112996023551 30.904827052466018
30.356559242928387 29.908451146530236 30.929776485888251
30.299308657254155 29.923150598536871 30.951056516295154
30.240876837050859 29.938153340021930 30.968583161128631
30.181494386017881 29.953400162018873 30.982287250728689
30.121395659560186 29.968830892286888 30.992114701314478
30.060817839894611 29.984384632783232 30.998026728428272
30.000000000000000 30.000000000000000 31.000000000000000
30.000000000000000 30.000000000000000 29.000000000000000
30.062295397528207 29.992130261150209 29.001973271571728
30.124344943582429 29.984291580564317 29.007885298685522
30.185903756952129 29.976514893933441 29.017712749271311
30.246728893124491 29.968830892286888 29.031416838871369
30.306580303075400 29.961269900868665 29.048943483704846
30.365221780633284 29.953861759457617 29.070223514111749
30.422421894676972 29.946635704603430 29.095172947533982
30.477954902488577 29.939620254243348 29.123693319956136
30.531601640656881 29.932843095154883 29.155672074497986
30.583150390015202 29.926330973688774 29.190983005625053
30.632397711200205 29.920109590213336 29.229486757224212
30.679149247534131 29.914203497686870 29.271031372578587
30.723220492061820 29.908636004758343 29.315452894071310
30.764437515715350 29.903429083778793 29.362576010251310
30.802637653732639 29.898603284086512 29.412214747707527
30.837670147620905 29.894177650908190 29.464173205021002
30.869396740131599 29.890169650196103 29.518246325898286
30.897692220898584 29.886595099697974 29.574220708434929
30.922444920586248 29.883468106531570 29.631875447315323
30.943557151597354 29.880801011510325 29.690983005625053
30.960945593601366 29.878604340439814 29.751310112835146
30.974541622361713 29.876886762577183 29.812618685414275
30.984291580564317 29.875655056417571 29.874666766435695
30.990156989578480 29.874914082942482 29.937209480470688
30.992114701314478 29.874666766435695 30.000000000000000
30.990156989578480 29.874914082942482 30.062790519529312
30.984291580564317 29.875655056417571 30.125333233564305
30.974541622361713 29.876886762577183 30.187381314585725
30.960945593601366 29.878604340439814 30.248689887164854
30.943557151597354 29.880801011510325 30.309016994374947
30.922444920586248 29.883468106531570 30.368124552684677
30.897692220898584 29.886595099697974 30.425779291565071
30.869396740131599 29.890169650196103 30.481753674101714
30.837670147620905 29.894177650908190 30.535826794978998
30.802637653732639 29.898603284086512 30.587785252292473
30.764437515715350 29.903429083778793 30.637423989748690
30.723220492061820 29.908636004758343 30.684547105928690
30.679149247534131 29.914203497686870 30.728968627421413
30.632397711200205 29.920109590213336 30.770513242775788
30.583150390015202 29.926330973688774 30.809016994374947
30.531601640656881 29.932843095154883 30.844327925502014
30.477954902488577 29.939620254243348 30.876306680043864
30.422421894676972 29.946635704603430 30.904827052466018
30.365221780633284 29.953861759457617 30.929776485888251
30.306580303075400 29.961269900868665 30.951056516295154
30.246728893124491 29.968830892286888 30.968583161128631
30.185903756952129 29.976514893933441 30.982287250728689
30.124344943582429 29.984291580564317 30.992114701314478
30.062295397528207 29.992130261150209 30.998026728428272
30.000000000000000 30.000000000000000 31.000000000000000
30.000000000000000 30.000000000000000 29.000000000000000
30.062790519529315 30.000000000000000 29.001973271571728
30.125333233564305 30.000000000000000 29.007885298685522
30.187381314585725 30.000000000000000 29.017712749271311
30.248689887164854 30.000000000000000 29.031416838871369
30.309016994374947 30.000000000000000 29.048943483704846
30.368124552684677 30.000000000000000 29.070223514111749
30.425779291565071 30.000000000000000 29.095172947533982
30.481753674101714 30.000000000000000 29.123693319956136
30.535826794978995 30.000000000000000 29.155672074497986
30.587785252292473 30.000000000000000 29.190983005625053
30.637423989748690 30.000000000000000 29.229486757224212
30.684547105928690 30.000000000000000 29.271031372578587
30.728968627421413 30.000000000000000 29.315452894071310
30.770513242775788 30.000000000000000 29.362576010251310
30.809016994374947 30.000000000000000 29.412214747707527
30.844327925502014 30.000000000000000 29.464173205021002
30.876306680043864 30.000000000000000 29.518246325898286
30.904827052466018 30.000000000000000 29.574220708434929
30.929776485888251 30.000000000000000 29.631875447315323
30.951056516295154 30.000000000000000 29.690983005625053
30.968583161128631 30.000000000000000 29.751310112835146
30.982287250728689 30.000000000000000 29.812618685414275
30.992114701314478 30.000000000000000 29.874666766435695
30.998026728428272 30.000000000000000 29.937209480470688
31.000000000000000 30.000000000000000 30.000000000000000
30.998026728428272 30.000000000000000 30.062790519529312
30.992114701314478 30.000000000000000 30.125333233564305
30.982287250728689 30.000000000000000 30.187381314585725
30.968583161128631 30.000000000000000 30.248689887164854
30.951056516295154 30.000000000000000 30.309016994374947
30.929776485888251 30.000000000000000 30.368124552684677
30.904827052466018 30.000000000000000 30.425779291565071
30.876306680043864 30.000000000000000 30.481753674101714
30.844327925502014 30.000000000000000 30.535826794978998
30.809016994374947 30.000000000000000 30.587785252292473
30.770513242775788 30.000000000000000 30.637423989748690
30.728968627421413 30.000000000000000 30.684547105928690
30.684547105928690 30.000000000000000 30.728968627421413
30.637423989748690 30.000000000000000 30.770513242775788
30.587785252292473 30.000000000000000 30.809016994374947
30.535826794978995 30.000000000000000 30.844327925502014
30.481753674101714 30.000000000000000 30.876306680043864
30.425779291565071 30.000000000000000 30.904827052466018
30.368124552684677 30.000000000000000 30.929776485888251
30.309016994374947 30.000000000000000 30.951056516295154
30.248689887164854 30.000000000000000 30.968583161128631
30.187381314585725 30.000000000000000 30.982287250728689
30.125333233564305 30.000000000000000 30.992114701314478
30.062790519529315 30.000000000000000 30.998026728428272
30.000000000000000 30.000000000000000 31.000000000000000
30.000000000000000 30.000000000000000 29.000000000000000
30.062295397528207 30.007869738849791 29.001973271571728
30.124344943582429 30.015708419435683 29.007885298685522
30.185903756952129 30.023485106066559 29.017712749271311
30.246728893124491 30.031169107713112 29.031416838871369
30.306580303075400 30.038730099131335 29.048943483704846
30.365221780633284 30.046138240542383 29.070223514111749
30.422421894676972 30.053364295396570 29.095172947533982
30.477954902488577 30.060379745756652 29.123693319956136
30.531601640656881 30.067156904845117 29.155672074497986
30.583150390015202 30.073669026311226 29.190983005625053
30.632397711200205 30.079890409786664 29.229486757224212
30.679149247534131 30.085796502313130 29.271031372578587
30.723220492061820 30.091363995241657 29.315452894071310
30.764437515715350 30.096570916221207 29.362576010251310
30.802637653732639 30.101396715913488 29.412214747707527
30.837670147620905 30.105822349091810 29.464173205021002
30.869396740131599 30.109830349803897 29.518246325898286
30.897692220898584 30.113404900302026 29.574220708434929
30.922444920586248 30.116531893468430 29.631875447315323
30.943557151597354 30.119198988489675 29.690983005625053
30.960945593601366 30.121395659560186 29.751310112835146
30.974541622361713 30.123113237422817 29.812618685414275
30.984291580564317 30.124344943582429 29.874666766435695
30.990156989578480 30.125085917057518 29.937209480470688
30.992114701314478 30.125333233564305 30.000000000000000
30.990156989578480 30.125085917057518 30.062790519529312
30.984291580564317 30.124344943582429 30.125333233564305
30.974541622361713 30.123113237422817 30.187381314585725
30.960945593601366 30.121395659560186 30.248689887164854
30.943557151597354 30.119198988489675 30.309016994374947
30.922444920586248 30.116531893468430 30.368124552684677
30.897692220898584 30.113404900302026 30.425779291565071
30.869396740131599 30.109830349803897 30.481753674101714
30.837670147620905 30.105822349091810 30.535826794978998
30.802637653732639 30.101396715913488 30.587785252292473
30.764437515715350 30.096570916221207 30.637423989748690
30.723220492061820 30.091363995241657 30.684547105928690
30.679149247534131 30.085796502313130 30.728968627421413
30.632397711200205 30.079890409786664 30.770513242775788
30.583150390015202 30.073669026311226 30.809016994374947
30.531601640656881 30.067156904845117 30.844327925502014
30.477954902488577 30.060379745756652 30.876306680043864
30.422421894676972 30.053364295396570 30.904827052466018
30.365221780633284 30.046138240542383 30.929776485888251
30.306580303075400 30.038730099131335 30.951056516295154
30.246728893124491 30.031169107713112 30.968583161128631
30.185903756952129 30.023485106066559 30.982287250728689
30.124344943582429 30.015708419435683 30.992114701314478
30.062295397528207 30.007869738849791 30.998026728428272
30.000000000000000 30.000000000000000 31.000000000000000
30.000000000000000 30.000000000000000 29.000000000000000
30.060817839894611 30.015615367216768 29.001973271571728
30.121395659560186 30.031169107713112 29.007885298685522
30.181494386017881 30.046599837981127 29.017712749271311
30.240876837050859 30.061846659978070 29.031416838871369
30.299308657254155 30.076849401463129 29.048943483704846
30.356559242928387 30.091548853469764 29.070223514111749
30.412402652167206 30.105887003976449 29.095172947533982
30.466618496546772 30.119807266853609 29.123693319956136
30.518992810898180 30.133254705183234 29.155672074497986
30.569318897730234 30.146176248069782 29.190983005625053
30.617398142970011 30.158520900086774 29.229486757224212
30.663040799801866 30.170239942532433 29.271031372578587
30.706066737511431 30.181287125700148 29.315452894071310
30.746306152379248 30.191618851404936 29.362576010251310
30.783600237818469 30.201194345045554 29.412214747707527
30.817801811111920 30.209975816523233 29.464173205021002
30.848775894275022 30.217928609381918 29.518246325898286
30.876400246752240 30.225021337581481 29.574220708434929
30.900565847844714 30.231226009364086 29.631875447315323
30.921177326965143 30.236518137724843 29.690983005625053
30.938153340021930 30.240876837050859 29.751310112835146
30.951426890447145 30.244284905547193 29.812618685414275
30.960945593601366 30.246728893124491 29.874666766435695
30.966671883511921 30.248199154480336 29.937209480470688
30.968583161128631 30.248689887164854 30.000000000000000
30.966671883511921 30.248199154480336 30.062790519529312
30.960945593601366 30.246728893124491 30.125333233564305
30.951426890447145 30.244284905547193 30.187381314585725
30.938153340021930 30.240876837050859 30.248689887164854
30.921177326965143 30.236518137724843 30.309016994374947
30.900565847844714 30.231226009364086 30.368124552684677
30.876400246752240 30.225021337581481 30.425779291565071
30.848775894275022 30.217928609381918 30.481753674101714
30.817801811111920 30.209975816523233 30.535826794978998
30.783600237818469 30.201194345045554 30.587785252292473
30.746306152379248 30.191618851404936 30.637423989748690
30.706066737511431 30.181287125700148 30.684547105928690
30.663040799801866 30.170239942532433 30.728968627421413
30.617398142970011 30.158520900086774 30.770513242775788
30.569318897730234 30.146176248069782 30.809016994374947
30.518992810898180 30.133254705183234 30.844327925502014
30.466618496546772 30.119807266853609 30.876306680043864
30.412402652167206 30.105887003976449 30.904827052466018
30.356559242928387 30.091548853469764 30.929776485888251
30.299308657254155 30.076849401463129 30.951056516295154
30.240876837050859 30.061846659978070 30.968583161128631
30.181494386017881 30.046599837981127 30.982287250728689
30.121395659560186 30.031169107713112 30.992114701314478
30.060817839894611 30.015615367216768 30.998026728428272
30.000000000000000 30.000000000000000 31.000000000000000
30.000000000000000 30.000000000000000 29.000000000000000
30.058381148595064 30.023114731914568 29.001973271571728
30.116531893468430 30.046138240542383 29.007885298685522
30.174222740196637 30.068979662613337 29.017712749271311
30.231226009364086 30.091548853469764 29.031416838871369
30.287316735109687 30.113756742826240 29.048943483704846
30.342273552964343 30.135515686289295 29.070223514111749
30.395879573475362 30.156739811249793 29.095172947533982
30.447923238170048 30.177345355782894 29.123693319956136
30.498199154480336 30.197250999218106 29.155672074497986
30.546508906333436 30.216378183074816 29.190983005625053
30.592661837209405 30.234651421096718 29.229486757224212
30.636475802575347 30.251998597161588 29.271031372578587
30.677777888726663 30.268351249890671 29.315452894071310
30.716405095198436 30.283644842834459 29.362576010251310
30.752204978053815 30.297819019168578 29.412214747707527
30.785036251510579 30.310817839894611 29.464173205021002
30.814769345531584 30.322590004605743 29.518246325898286
30.841286917178479 30.333089053946050 29.574220708434929
30.864484313710705 30.342273552964343 29.631875447315323
30.884269985602032 30.350107254639003 29.690983005625053
30.900565847844714 30.356559242928387 29.751310112835146
30.913307588115352 30.361604054782362 29.812618685414275
30.922444920586248 30.365221780633284 29.874666766435695
30.927941784380586 30.367398142970011 29.937209480470688
30.929776485888251 30.368124552684677 30.000000000000000
30.927941784380586 30.367398142970011 30.062790519529312
30.922444920586248 30.365221780633284 30.125333233564305
30.913307588115352 30.361604054782362 30.187381314585725
30.900565847844714 30.356559242928387 30.248689887164854
30.884269985602032 30.350107254639003 30.309016994374947
30.864484313710705 30.342273552964343 30.368124552684677
30.841286917178479 30.333089053946050 30.425779291565071
30.814769345531584 30.322590004605743 30.481753674101714
30.785036251510579 30.310817839894611 30.535826794978998
30.752204978053815 30.297819019168578 30.587785252292473
30.716405095198436 30.283644842834459 30.637423989748690
30.677777888726663 30.268351249890671 30.684547105928690
30.636475802575347 30.251998597161588 30.728968627421413
30.592661837209405 30.234651421096718 30.770513242775788
30.546508906333436 30.216378183074816 30.809016994374947
30.498199154480336 30.197250999218106 30.844327925502014
30.447923238170048 30.177345355782894 30.876306680043864
30.395879573475362 30.156739811249793 30.904827052466018
30.342273552964343 30.135515686289295 30.929776485888251
30.287316735109687 30.113756742826240 30.951056516295154
30.231226009364086 30.091548853469764 30.968583161128631
30.174222740196637 30.068979662613337 30.982287250728689
30.116531893468430 30.046138240542383 30.992114701314478
30.058381148595064 30.023114731914568 30.998026728428272
30.000000000000000 30.000000000000000 31.000000000000000
30.000000000000000 30.000000000000000 29.000000000000000
30.055023751706962 30.030249563482002 29.001973271571728
30.109830349803897 30.060379745756652 29.007885298685522
30.164203497686870 30.090271636759681 29.017712749271311
30.217928609381918 30.119807266853609 29.031416838871369
30.270793656417844 30.148870072400001 29.048943483704846
30.322590004605743 30.177345355782894 29.070223514111749
30.373113237422817 30.205120738067901 29.095172947533982
30.422163962751007 30.232086602510503 29.123693319956136
30.469548599786588 30.258136527163277 29.155672074497986
30.515080143015162 30.283167704874703 29.190983005625053
30.558578900236988 30.307081349022006 29.229486757224212
30.599873201730006 30.329783083376842 29.271031372578587
30.638800077751789 30.351183314565148 29.315452894071310
30.675205901706683 30.371197585651263 29.362576010251310
30.708946996439774 30.389746909450857 29.412214747707527
30.739890201264995 30.406758080257276 29.464173205021002
30.767913397489497 30.422163962751007 29.518246325898286
30.792905990360371 30.435903756952129 29.574220708434929
30.814769345531584 30.447923238170048 29.631875447315323
30.833417178328688 30.458174971003569 29.690983005625053
30.848775894275022 30.466618496546772 29.751310112835146
30.860784879535473 30.473220492061820 29.812618685414275
30.869396740131599 30.477954902488577 29.874666766435695
30.874577488984016 30.480803043272033 29.937209480470688
30.876306680043864 30.481753674101714 30.000000000000000
30.874577488984016 30.480803043272033 30.062790519529312
30.869396740131599 30.477954902488577 30.125333233564305
30.860784879535473 30.473220492061820 30.187381314585725
30.848775894275022 30.466618496546772 30.248689887164854
30.833417178328688 30.458174971003569 30.309016994374947
30.814769345531584 30.447923238170048 30.368124552684677
30.792905990360371 30.435903756952129 30.425779291565071
30.767913397489497 30.422163962751007 30.481753674101714
30.739890201264995 30.406758080257276 30.535826794978998
30.708946996439774 30.389746909450857 30.587785252292473
30.675205901706683 30.371197585651263 30.637423989748690
30.638800077751789 30.351183314565148 30.684547105928690
30.599873201730006 30.329783083376842 30.728968627421413
30.558578900236988 30.307081349022006 30.770513242775788
30.515080143015162 30.283167704874703 30.809016994374947
30.469548599786588 30.258136527163277 30.844327925502014
30.422163962751007 30.232086602510503 30.876306680043864
30.373113237422817 30.205120738067901 30.904827052466018
30.322590004605743 30.177345355782894 30.929776485888251
30.270793656417844 30.148870072400001 30.951056516295154
30.217928609381918 30.119807266853609 30.968583161128631
30.164203497686870 30.090271636759681 30.982287250728689
30.109830349803897 30.060379745756652 30.992114701314478
30.055023751706962 30.030249563482002 30.998026728428272
30.000000000000000 30.000000000000000 31.000000000000000
30.000000000000000 30.000000000000000 29.000000000000000
30.050798597384848 30.036907341363111 29.001973271571728
30.101396715913488 30.073669026311226 29.007885298685522
30.151594667928169 30.110139973268666 29.017712749271311
30.201194345045558 30.146176248069782 29.031416838871369
30.250000000000000 30.181635632001342 29.048943483704846
30.297819019168582 30.216378183074816 29.070223514111749
30.344462682729070 30.250266788313485 29.095172947533982
30.389746909450857 30.283167704874703 29.123693319956136
30.433492983179470 30.314951087871798 29.155672074497986
30.475528258147577 30.345491502812525 29.190983005625053
30.515686840328971 30.374668420631707 29.229486757224212
30.553810242146497 30.402366693364378 29.271031372578587
30.589748007950103 30.428477008582192 29.315452894071310
30.623358307796565 30.452896320799660 29.362576010251310
30.654508497187475 30.475528258147577 29.412214747707527
30.683075640556474 30.496283502708781 29.464173205021002
30.708946996439774 30.515080143015162 29.518246325898286
30.732020462415203 30.531843997314795 29.574220708434929
30.752204978053815 30.546508906333436 29.631875447315323
30.769420884293812 30.559016994374947 29.690983005625053
30.783600237818469 30.569318897730234 29.751310112835146
30.794687079197352 30.577373959493244 29.812618685414275
30.802637653732639 30.583150390015202 29.874666766435695
30.807420584138903 30.586625392363842 29.937209480470688
30.809016994374947 30.587785252292473 30.000000000000000
30.807420584138903 30.586625392363842 30.062790519529312
30.802637653732639 30.583150390015202 30.125333233564305
30.794687079197352 30.577373959493244 30.187381314585725
30.783600237818469 30.569318897730234 30.248689887164854
30.769420884293812 30.559016994374947 30.309016994374947
30.752204978053815 30.546508906333436 30.368124552684677
30.732020462415203 30.531843997314795 30.425779291565071
30.708946996439774 30.515080143015162 30.481753674101714
30.683075640556474 30.496283502708781 30.535826794978998
30.654508497187475 30.475528258147577 30.587785252292473
30.623358307796565 30.452896320799660 30.637423989748690
30.589748007950103 30.428477008582192 30.684547105928690
30.553810242146497 30.402366693364378 30.728968627421413
30.515686840328971 30.374668420631707 30.770513242775788
30.475528258147577 30.345491502812525 30.809016994374947
30.433492983179470 30.314951087871798 30.844327925502014
30.389746909450857 30.283167704874703 30.876306680043864
30.344462682729070 30.250266788313485 30.904827052466018
30.297819019168582 30.216378183074816 30.929776485888251
30.250000000000000 30.181635632001342 30.951056516295154
30.201194345045558 30.146176248069782 30.968583161128631
30.151594667928169 30.110139973268666 30.982287250728689
30.101396715913488 30.073669026311226 30.992114701314478
30.050798597384848 30.036907341363111 30.998026728428272
30.000000000000000 30.000000000000000 31.000000000000000
30.000000000000000 30.000000000000000 29.000000000000000
30.045772318836359 30.042983068423549 29.001973271571728
30.091363995241657 30.085796502313130 29.007885298685522
30.136595099697974 30.128271336604772 29.017712749271311
30.181287125700152 30.170239942532433 29.031416838871369
30.225263694239395 30.211536689182154 29.048943483704846
30.268351249890671 30.251998597161588 29.070223514111749
30.310379745756652 30.291465981805239 29.095172947533982
30.351183314565148 30.329783083376842 29.123693319956136
30.390600923271453 30.366798681781916 29.155672074497986
30.428477008582192 30.402366693364378 29.190983005625053
30.464662090892581 30.436346747431983 29.229486757224212
30.499013364214136 30.468604740235342 29.271031372578587
30.531395259764658 30.499013364214136 29.315452894071310
30.561679980996288 30.527452610421896 29.362576010251310
30.589748007950103 30.553810242146497 29.412214747707527
30.615488568946773 30.577982237857178 29.464173205021002
30.638800077751789 30.599873201730006 29.518246325898286
30.659590534489915 30.619396740131599 29.574220708434929
30.677777888726663 30.636475802575347 29.631875447315323
30.693290363283868 30.651042985804470 29.690983005625053
30.706066737511431 30.663040799801866 29.751310112835146
30.716056588897246 30.672421894676972 29.812618685414275
30.723220492061820 30.679149247534131 29.874666766435695
30.727530174352239 30.683196308585050 29.937209480470688
30.728968627421413 30.684547105928690 30.000000000000000
30.727530174352239 30.683196308585050 30.062790519529312
30.723220492061820 30.679149247534131 30.125333233564305
30.716056588897246 30.672421894676972 30.187381314585725
30.706066737511431 30.663040799801866 30.248689887164854
30.693290363283868 30.651042985804470 30.309016994374947
30.677777888726663 30.636475802575347 30.368124552684677
30.659590534489915 30.619396740131599 30.425779291565071
30.638800077751789 30.599873201730006 30.481753674101714
30.615488568946773 30.577982237857178 30.535826794978998
30.589748007950103 30.553810242146497 30.587785252292473
30.561679980996288 30.527452610421896 30.637423989748690
30.531395259764658 30.499013364214136 30.684547105928690
30.499013364214136 30.468604740235342 30.728968627421413
30.464662090892581 30.436346747431983 30.770513242775788
30.428477008582192 30.402366693364378 30.809016994374947
30.390600923271453 30.366798681781916 30.844327925502014
30.351183314565148 30.329783083376842 30.876306680043864
30.310379745756652 30.291465981805239 30.904827052466018
30.268351249890671 30.251998597161588 30.929776485888251
30.225263694239395 30.211536689182154 30.951056516295154
30.181287125700152 30.170239942532433 30.968583161128631
30.136595099697974 30.128271336604772 30.982287250728689
30.091363995241657 30.085796502313130 30.992114701314478
30.045772318836359 30.042983068423549 30.998026728428272
30.000000000000000 30.000000000000000 31.000000000000000
30.000000000000000 30.000000000000000 29.000000000000000
30.040024183476767 30.048380926818108 29.001973271571728
30.079890409786664 30.096570916221207 29.007885298685522
30.119441345147585 30.144379784337037 29.017712749271311
30.158520900086774 30.191618851404936 29.031416838871369
30.196974845454626 30.238101686408669 29.048943483704846
30.234651421096718 30.283644842834459 29.070223514111749
30.271401934781778 30.328068582650584 29.095172947533982
30.307081349022006 30.371197585651263 29.123693319956136
30.341548853469764 30.412861641365424 29.155672074497986
30.374668420631707 30.452896320799660 29.190983005625053
30.406309342707139 30.491143625364344 29.229486757224212
30.436346747431983 30.527452610421896 29.271031372578587
30.464662090892581 30.561679980996288 29.315452894071310
30.491143625364344 30.593690657292861 29.362576010251310
30.515686840328971 30.623358307796565 29.412214747707527
30.538194874929729 30.650565847844714 29.464173205021002
30.558578900236988 30.675205901706683 29.518246325898286
30.576758469815438 30.697181226346853 29.574220708434929
30.592661837209405 30.716405095198436 29.631875447315323
30.606226239093345 30.732801640433625 29.690983005625053
30.617398142970011 30.746306152379248 29.751310112835146
30.626133458438751 30.756865334896275 29.812618685414275
30.632397711200205 30.764437515715350 29.874666766435695
30.636166179110582 30.768992810898180 29.937209480470688
30.637423989748690 30.770513242775788 30.000000000000000
30.636166179110582 30.768992810898180 30.062790519529312
30.632397711200205 30.764437515715350 30.125333233564305
30.626133458438751 30.756865334896275 30.187381314585725
30.617398142970011 30.746306152379248 30.248689887164854
30.606226239093345 30.732801640433625 30.309016994374947
30.592661837209405 30.716405095198436 30.368124552684677
30.576758469815438 30.697181226346853 30.425779291565071
30.558578900236988 30.675205901706683 30.481753674101714
30.538194874929729 30.650565847844714 30.535826794978998
30.515686840328971 30.623358307796565 30.587785252292473
30.491143625364344 30.593690657292861 30.637423989748690
30.464662090892581 30.561679980996288 30.684547105928690
30.436346747431983 30.527452610421896 30.728968627421413
30.406309342707139 30.491143625364344 30.770513242775788
30.374668420631707 30.452896320799660 30.809016994374947
30.341548853469764 30.412861641365424 30.844327925502014
30.307081349022006 30.371197585651263 30.876306680043864
30.271401934781778 30.328068582650584 30.904827052466018
30.234651421096718 30.283644842834459 30.929776485888251
30.196974845454626 30.238101686408669 30.951056516295154
30.158520900086774 30.191618851404936 30.968583161128631
30.119441345147585 30.144379784337037 30.982287250728689
30.079890409786664 30.096570916221207 30.992114701314478
30.040024183476767 30.048380926818108 30.998026728428272
30.000000000000000 30.000000000000000 31.000000000000000
30.000000000000000 30.000000000000000 29.000000000000000
30.033644842834459 30.053015789095380 29.001973271571728
30.067156904845117 30.105822349091810 29.007885298685522
30.100403929233419 30.158211276622005 29.017712749271311
30.133254705183234 30.209975816523233 29.031416838871369
30.165579585689972 30.260911677805467 29.048943483704846
30.197250999218110 30.310817839894611 29.070223514111749
30.228143953167741 30.359497345968855 29.095172947533982
30.258136527163277 30.406758080257276 29.123693319956136
30.287110354217464 30.452413526233009 29.155672074497986
30.314951087871798 30.496283502708781 29.190983005625053
30.341548853469764 30.538194874929729 29.229486757224212
30.366798681781916 30.577982237857178 29.271031372578587
30.390600923271453 30.615488568946773 29.315452894071310
30.412861641365424 30.650565847844714 29.362576010251310
30.433492983179470 30.683075640556474 29.412214747707527
30.452413526233009 30.712889645782536 29.464173205021002
30.469548599786588 30.739890201264995 29.518246325898286
30.484830579533160 30.763970748146736 29.574220708434929
30.498199154480336 30.785036251510579 29.631875447315323
30.509601564970321 30.803003575438659 29.690983005625053
30.518992810898180 30.817801811111920 29.751310112835146
30.526335829306682 30.829372556654832 29.812618685414275
30.531601640656881 30.837670147620905 29.874666766435695
30.534769463197094 30.842661837209405 29.937209480470688
30.535826794978995 30.844327925502014 30.000000000000000
30.534769463197094 30.842661837209405 30.062790519529312
30.531601640656881 30.837670147620905 30.125333233564305
30.526335829306682 30.829372556654832 30.187381314585725
30.518992810898180 30.817801811111920 30.248689887164854
30.509601564970321 30.803003575438659 30.309016994374947
30.498199154480336 30.785036251510579 30.368124552684677
30.484830579533160 30.763970748146736 30.425779291565071
30.469548599786588 30.739890201264995 30.481753674101714
30.452413526233009 30.712889645782536 30.535826794978998
30.433492983179470 30.683075640556474 30.587785252292473
30.412861641365424 30.650565847844714 30.637423989748690
30.390600923271453 30.615488568946773 30.684547105928690
30.366798681781916 30.577982237857178 30.728968627421413
30.341548853469764 30.538194874929729 30.770513242775788
